# .PCD v0.7 - Point Cloud Data file format
VERSION 0.7
FIELDS x y z
SIZE 4 4 4
TYPE F F F
COUNT 1 1 1
WIDTH 1464
HEIGHT 1
VIEWPOINT 0 0 0 1 0 0 0
POINTS 1464
DATA ascii
-7.4028363 0.86760485 -13.129342
-7.3932295 0.86675549 -13.1491
-6.9036765 0.89089566 -13.11464
-6.8374567 0.89101088 -13.106252
-6.6154528 0.8939147 -13.147288
-6.3730206 0.89157468 -13.142081
-6.2466631 0.88678896 -13.132757
-5.8695498 0.7393924 -13.053995
-7.2783942 0.79694855 -13.076744
-7.2315164 0.79143625 -13.087952
-7.0400324 0.773525 -13.050998
-6.8728814 0.76407814 -13.05002
-6.7577562 0.765549 -13.096855
-6.6910796 0.76552045 -13.088211
-6.5784431 0.76357251 -13.050182
-6.5203819 0.76527107 -13.063908
-6.2088103 0.77793932 -13.09082
-5.9887595 0.78574389 -13.085088
-5.9331579 0.79486024 -13.075261
-5.8799515 0.76991338 -13.063713
-5.7050281 0.75136453 -13.072295
-7.9951525 0.82636344 -13.083542
-7.9159393 0.83885324 -13.06333
-7.6008859 0.82173699 -13.058578
-7.3145647 0.81903863 -13.075644
-5.9706316 0.83544755 -13.069965
-5.9000115 0.8179 -13.097862
-7.6315622 0.8733691 -13.09736
-7.5380764 0.8771674 -13.085042
-7.4951706 0.87490678 -13.064287
-7.4416361 0.87091774 -13.066578
-7.3766155 0.86588931 -13.095922
-7.2988005 0.86281902 -13.054698
-6.7145791 0.8896935 -13.060774
-6.6743975 0.88979572 -13.056314
-6.5448503 0.88924998 -13.054482
-6.4157696 0.88849849 -13.063042
-6.3734798 0.88896263 -13.082126
-6.2580957 0.88616717 -13.057301
-6.1074696 0.87826937 -13.057259
-5.7490506 0.72472543 -13.000463
-5.6800432 0.72223639 -13.008834
-7.1448407 0.78107494 -13.047512
-7.0790615 0.77434033 -13.014371
-6.6857543 0.75915283 -13.009027
-6.6112728 0.75952244 -13.004321
-5.9312096 0.7844339 -13.038664
-5.7255116 0.78314662 -13.035576
-7.9651814 0.82319403 -13.02416
-7.9095592 0.83191872 -13.014875
-7.7234669 0.8191278 -13.025748
-7.6834292 0.81866854 -13.012229
-7.5107417 0.81263685 -13.018589
-7.3740797 0.80439681 -13.027325
-7.3174791 0.80138624 -13.045257
-5.9655724 0.83997846 -13.046854
-5.9244194 0.82624561 -13.010867
-7.7775173 0.85082054 -13.008492
-7.2580366 0.88039297 -13.011305
-6.8526583 0.88710022 -13.032298
-6.4967031 0.88731295 -13.019706
-6.1356444 0.87914127 -13.019859
-6.0833988 0.87627429 -13.011963
-5.7442985 0.72418058 -12.998363
-5.6570244 0.71385396 -12.969463
-7.3021512 0.7982896 -12.968924
-7.1235347 0.77829039 -12.951727
-6.9587545 0.76612282 -12.976078
-6.7124448 0.75745034 -12.991352
-6.6296229 0.75818092 -12.990062
-6.2770061 0.76758736 -12.991194
-5.965332 0.77438796 -12.966682
-5.8738027 0.78266752 -12.988131
-7.8818212 0.83536059 -12.995955
-7.8255863 0.81474227 -12.957512
-7.7347345 0.83254802 -12.956711
-5.9299393 0.82812649 -12.989127
-5.8894444 0.82902831 -12.951637
-5.8278184 0.81240195 -12.983168
-5.7730093 0.80006987 -12.990967
-7.6942153 0.85470766 -12.96294
-7.6314263 0.86370665 -12.993654
-7.1833649 0.87963778 -12.977974
-7.0294285 0.88203144 -12.980516
-6.9816451 0.88333154 -12.991354
-6.912571 0.88329154 -12.972402
-6.7549491 0.88562858 -12.987851
-6.7474194 0.88435215 -12.961705
-6.5935259 0.88538224 -12.957104
-6.3666506 0.88424575 -12.975388
-6.2971148 0.88319641 -12.965226
-6.2435284 0.88254607 -12.961024
-6.1195073 0.87747073 -12.968916
-5.7612891 0.73030692 -12.911942
-5.6850114 0.71933734 -12.91321
-7.2084255 0.78821921 -12.912183
-7.1067071 0.77621359 -12.920331
-6.4346638 0.75523686 -12.92951
-6.2327027 0.76528287 -12.947377
-6.1707773 0.76619017 -12.928495
-5.7653189 0.77538615 -12.911501
-7.9046192 0.80113316 -12.938296
-7.8948135 0.82073104 -12.930511
-7.7514887 0.81306571 -12.917212
-7.6871734 0.814291 -12.931782
-7.5207243 0.81362742 -12.923444
-7.4113793 0.80389208 -12.926944
-7.2533937 0.83989787 -12.936109
-5.8544693 0.8212654 -12.946939
-5.8460441 0.8104254 -12.911867
-7.2193294 0.8712945 -12.915849
-6.9523439 0.87971455 -12.918381
-6.9404178 0.87942404 -12.909994
-6.8762174 0.88066989 -12.915519
-6.7273026 0.88327962 -12.937521
-6.5720291 0.88483942 -12.94797
-6.4422832 0.88354999 -12.944334
-6.0830145 0.87508154 -12.939507
-5.7302685 0.72803271 -12.867419
-5.5814233 0.72704566 -12.891643
-7.3506818 0.79905057 -12.888768
-7.1054764 0.77591169 -12.863856
-6.9861279 0.76351368 -12.866074
-6.7583933 0.75124514 -12.880708
-6.0754499 0.76324284 -12.872807
-5.7873325 0.79308039 -12.879614
-5.6134109 0.77356702 -12.890425
-5.5861897 0.76831985 -12.873316
-7.8728333 0.81793845 -12.876454
-7.694428 0.84777099 -12.888816
-7.6388135 0.84977829 -12.852104
-7.4807558 0.8090952 -12.89208
-7.2214146 0.82540917 -12.87809
-5.9072943 0.83943594 -12.87675
-5.8883839 0.830697 -12.874516
-5.8080516 0.81419075 -12.871046
-5.7851267 0.81332868 -12.881083
-7.6566401 0.85198402 -12.894409
-7.5956068 0.85437846 -12.856174
-7.4029198 0.86961067 -12.896308
-7.2285366 0.86270523 -12.889437
-6.5905504 0.88115317 -12.87401
-6.415451 0.88130188 -12.898169
-6.2464838 0.8797847 -12.897147
-6.1316619 0.8766188 -12.8769
-6.0300899 0.87154382 -12.892367
-6.3712959 0.74737269 -12.824653
-5.7080202 0.7256732 -12.844313
-5.6737123 0.72193754 -12.80986
-5.5241389 0.74693567 -12.835835
-7.3448429 0.79719514 -12.835642
-7.037539 0.7677145 -12.804764
-6.8909554 0.75670832 -12.827706
-6.0729055 0.75905949 -12.813596
-5.8067112 0.76664639 -12.800749
-5.7580652 0.7789098 -12.824455
-5.7295833 0.77265561 -12.809924
-5.6883292 0.76546478 -12.809888
-5.5735631 0.77401602 -12.80704
-7.8760142 0.80546618 -12.837687
-7.837543 0.81910574 -12.841603
-7.7971992 0.80234593 -12.826669
-7.6037097 0.81005323 -12.842959
-7.507947 0.80885708 -12.808818
-7.4160104 0.80176532 -12.812353
-7.1954637 0.82890874 -12.823156
-5.8556418 0.83218575 -12.815981
-5.7832389 0.81307226 -12.820842
-5.7306848 0.81086737 -12.817273
-7.4964957 0.86265355 -12.841102
-7.3446097 0.86672443 -12.814769
-7.2493806 0.85828871 -12.828858
-7.0896692 0.87212801 -12.817793
-6.8974743 0.87559181 -12.829537
-6.618083 0.87942088 -12.844593
-6.5338254 0.87849092 -12.812889
-6.3253074 0.87788016 -12.837753
-6.2671704 0.87621224 -12.81114
-6.2003756 0.87729985 -12.849409
-6.0742021 0.87298417 -12.838461
-5.9812231 0.86819023 -12.843454
-6.6122704 0.74255806 -12.795251
-6.5472445 0.73962253 -12.750964
-6.4950213 0.74116939 -12.763546
-6.2313972 0.74672675 -12.773741
-5.6691852 0.7225861 -12.791484
-5.5883775 0.7112897 -12.779046
-5.4793057 0.71606702 -12.751019
-7.2434111 0.78865653 -12.755905
-7.1073437 0.77585667 -12.764234
-7.031292 0.76686239 -12.763813
-6.9557834 0.75826222 -12.772158
-6.8922868 0.75535756 -12.789916
-6.8181791 0.7506513 -12.775753
-6.0206161 0.75546151 -12.758644
-5.7541451 0.79264617 -12.787195
-5.5999718 0.78154045 -12.797785
-7.6777067 0.83794057 -12.765947
-7.6021476 0.84613192 -12.774634
-7.5207253 0.80711609 -12.778241
-7.1714149 0.8002845 -12.781529
-5.8668194 0.84369469 -12.796436
-5.8074923 0.82423109 -12.780394
-5.7374344 0.81424493 -12.787521
-7.3246136 0.86479652 -12.778848
-6.9875283 0.87168407 -12.782826
-6.881309 0.87256765 -12.770727
-6.7073274 0.87590605 -12.790269
-6.6676459 0.87490851 -12.764407
-6.5799623 0.87701833 -12.791535
-6.4677234 0.87556851 -12.756328
-6.3492975 0.87555361 -12.779642
-6.1814218 0.87474597 -12.794663
-6.0929637 0.87219942 -12.753968
-5.9649248 0.86642307 -12.787063
-6.7895193 0.74729514 -12.729563
-6.6032085 0.73875421 -12.747216
-6.5537901 0.73678666 -12.716806
-6.5394502 0.73678398 -12.714992
-6.4080796 0.73699826 -12.701297
-6.3425136 0.73992378 -12.729218
-6.2435584 0.73856819 -12.700195
-5.5891628 0.7125107 -12.745274
-5.4769874 0.70993918 -12.74031
-7.8331976 0.7914592 -12.725528
-7.355299 0.79490244 -12.712262
-6.1006932 0.7507906 -12.745732
-6.0535059 0.7520541 -12.733723
-5.7389941 0.76425582 -12.738317
-5.6503801 0.76604843 -12.701861
-5.6466107 0.78346884 -12.728683
-5.5670729 0.78129196 -12.734049
-7.7686152 0.81399685 -12.716603
-7.720057 0.81451714 -12.730276
-7.6587825 0.80210418 -12.702941
-7.4562316 0.8043555 -12.719109
-7.1491542 0.82209301 -12.735099
-5.6419034 0.80025083 -12.704746
-7.2640362 0.86005247 -12.730889
-7.1037674 0.86542374 -12.700593
-6.9265928 0.86896169 -12.71764
-6.6389627 0.87303638 -12.723227
-6.4313846 0.87435687 -12.735819
-6.3615847 0.87335396 -12.726774
-6.3152418 0.87182873 -12.701074
-6.2867088 0.87312412 -12.736463
-6.1659751 0.87221968 -12.73985
-6.0067816 0.86772192 -12.731721
-6.8028593 0.74618882 -12.680332
-6.7736115 0.74495488 -12.691268
-6.5044212 0.7330482 -12.664569
-6.4050989 0.73311305 -12.653015
-6.0565767 0.74591285 -12.678022
-5.6178861 0.73166603 -12.692972
-5.5911598 0.73719144 -12.666633
-7.8085923 0.78679979 -12.671269
-7.2909565 0.78888798 -12.659083
-7.1854997 0.78250355 -12.664903
-7.1295114 0.77866596 -12.65205
-6.9679613 0.75916415 -12.688157
-5.954133 0.75030553 -12.680575
-5.9393177 0.75080746 -12.686464
-5.6957436 0.76029837 -12.676094
-7.7623329 0.8070789 -12.668378
-7.6782818 0.82801318 -12.671009
-7.4126778 0.80130863 -12.657315
-7.1174688 0.83365834 -12.658039
-5.7721915 0.83242214 -12.678494
-5.7037482 0.81861216 -12.668012
-7.4264455 0.85345578 -12.669181
-7.074234 0.86501461 -12.685419
-7.0413737 0.86525553 -12.68109
-6.6392865 0.86968368 -12.657784
-6.5102458 0.87042791 -12.651588
-6.4708452 0.87083691 -12.653249
-6.3403687 0.87171978 -12.693561
-6.0833302 0.86929852 -12.689409
-5.9778619 0.86534905 -12.678788
-5.4387302 0.69728088 -12.617925
-6.8852572 0.74923038 -12.632529
-6.7648625 0.74157578 -12.614757
-6.7424688 0.74137306 -12.642801
-6.465281 0.73021638 -12.624779
-6.132154 0.73393798 -12.604494
-5.5628262 0.71681333 -12.627977
-5.5398355 0.71302116 -12.606822
-5.458992 0.70005059 -12.613405
-5.3836584 0.70798582 -12.621613
-7.7781105 0.7767868 -12.616907
-7.5129147 0.79847366 -12.617504
-7.2660818 0.78691709 -12.643911
-5.7427855 0.75227731 -12.630448
-5.6771212 0.77401823 -12.624107
-5.6254654 0.76298732 -12.633328
-5.457726 0.76806104 -12.624522
-7.5136042 0.84052044 -12.621791
-7.4995971 0.84268343 -12.630308
-7.4393435 0.84735483 -12.617293
-5.736588 0.83550334 -12.610035
-5.6783495 0.81776249 -12.624389
-7.1316729 0.8507905 -12.649422
-7.0990119 0.85307515 -12.631075
-6.9037323 0.86502856 -12.640666
-6.6823807 0.86766684 -12.629826
-6.5782337 0.86879462 -12.630607
-6.4216623 0.86934054 -12.622794
-6.2873669 0.86815566 -12.622461
-6.0821776 0.86649591 -12.625407
-6.0299654 0.86661047 -12.638461
-5.9438405 0.8627761 -12.63002
-5.8056035 0.8555122 -12.629012
-5.7901697 0.8546052 -12.622966
-5.4401646 0.69836485 -12.59082
-6.1667881 0.73032522 -12.586243
-6.1244678 0.73111421 -12.574295
-6.0631003 0.73451406 -12.575052
-5.5408454 0.72867608 -12.593018
-5.4850287 0.70558089 -12.569628
-7.6104531 0.79365289 -12.553015
-7.5093379 0.79559737 -12.563887
-7.225471 0.78267366 -12.582633
-7.181602 0.77988565 -12.580352
-7.0873909 0.77339554 -12.55756
-6.9505839 0.75674725 -12.557381
-5.620841 0.79129726 -12.571613
-5.5772915 0.77179724 -12.585728
-5.5439582 0.76692623 -12.56613
-5.4663935 0.77417308 -12.59144
-5.4171362 0.76693523 -12.552641
-7.6744418 0.81376946 -12.584365
-7.5769734 0.82993937 -12.574726
-7.5273285 0.83416688 -12.568062
-7.4213128 0.84540945 -12.577566
-7.0661869 0.81358308 -12.558872
-5.7009559 0.82212448 -12.595669
-7.0052757 0.85970294 -12.571413
-6.8966794 0.86162674 -12.577447
-6.7653403 0.86279982 -12.56394
-6.6768818 0.86416072 -12.565136
-6.4981093 0.86603773 -12.563875
-6.3719149 0.8670814 -12.580954
-6.2963428 0.8668108 -12.589846
-6.2390256 0.86600161 -12.582748
-6.1194091 0.86568826 -12.59946
-6.0855083 0.86424166 -12.573077
-5.9812722 0.86314535 -12.56974
-5.9340129 0.86132526 -12.572215
-5.7688875 0.85298634 -12.591885
-5.3821473 0.6930033 -12.526254
-5.3215795 0.68556476 -12.514398
-6.4513125 0.72222471 -12.524424
-6.3029189 0.72566724 -12.54849
-6.2033982 0.72548783 -12.5339
-6.123219 0.72368819 -12.501738
-5.4855218 0.70967609 -12.521152
-5.3326712 0.74463761 -12.538749
-7.695199 0.79964346 -12.532591
-7.327085 0.79177475 -12.514953
-7.2413316 0.78248316 -12.54081
-7.1677361 0.77765435 -12.531587
-7.1458039 0.77580184 -12.514119
-7.052104 0.79462248 -12.528013
-6.9814024 0.76036048 -12.546161
-5.5806279 0.78837228 -12.531066
-5.5221043 0.77393794 -12.529406
-7.6906681 0.80046153 -12.530962
-7.6312594 0.81278211 -12.518686
-7.06704 0.80461979 -12.538933
-5.701973 0.84813786 -12.509068
-5.6847553 0.84134364 -12.505913
-6.9675617 0.85771257 -12.525559
-6.9162264 0.85892463 -12.533871
-6.8184009 0.86039662 -12.534598
-6.7772512 0.86178344 -12.548751
-6.7085624 0.86283499 -12.549587
-6.6133766 0.86295336 -12.526597
-6.2730255 0.86302459 -12.50773
-6.1837373 0.86392498 -12.546199
-5.7731848 0.8520208 -12.518304
-6.8122988 0.74018729 -12.482335
-6.7014618 0.73316789 -12.486503
-6.6758833 0.73160243 -12.483177
-6.5715637 0.72623515 -12.496576
-6.1686811 0.72023267 -12.464779
-5.9680462 0.73059803 -12.490628
-5.9330578 0.73032153 -12.470413
-5.7248368 0.73676735 -12.47119
-5.4521956 0.70720327 -12.473678
-5.449594 0.72093546 -12.469294
-5.2844753 0.74609697 -12.459243
-7.7147846 0.77037132 -12.498559
-7.6943979 0.768179 -12.459524
-7.4768391 0.79176253 -12.488916
-7.1508389 0.77555126 -12.494079
-7.1328521 0.77399987 -12.478614
-7.0623522 0.76994109 -12.489954
-7.0112796 0.76368183 -12.46971
-6.8972554 0.75018507 -12.464862
-5.5154443 0.79939944 -12.453057
-5.4737759 0.77065039 -12.468375
-5.4156055 0.77751321 -12.462331
-7.4147234 0.83662307 -12.476496
-7.3834591 0.8380605 -12.459167
-7.210988 0.84868586 -12.470592
-7.0385637 0.8364836 -12.479778
-5.6569624 0.8385244 -12.469656
-6.837935 0.85564423 -12.454038
-6.7545152 0.85839552 -12.481644
-6.7368078 0.85942733 -12.49558
-6.3712754 0.86263788 -12.479242
-6.3079 0.86229885 -12.48413
-6.1320233 0.86030501 -12.473565
-6.6345224 0.72681034 -12.417875
-6.5383091 0.72152948 -12.425855
-6.3878903 0.7164042 -12.444832
-6.071445 0.71693397 -12.412008
-5.8611193 0.73094565 -12.439965
-5.7792449 0.73481292 -12.447995
-5.7248783 0.73346037 -12.424548
-5.6510348 0.73656905 -12.431211
-5.4169478 0.70380414 -12.432964
-5.3903337 0.70029867 -12.413598
-7.7024584 0.76653618 -12.424407
-7.6903005 0.77807415 -12.412898
-7.5831819 0.78002805 -12.422011
-7.5132971 0.78785598 -12.421284
-7.2510934 0.78316814 -12.429862
-7.0950541 0.77041841 -12.43468
-7.0111957 0.79219806 -12.419836
-6.9313717 0.75416297 -12.444537
-6.8970075 0.75004029 -12.423159
-5.4697299 0.79272008 -12.430183
-5.4200578 0.77246076 -12.428368
-5.3039479 0.75414932 -12.431765
-7.6066766 0.80067062 -12.415371
-7.5162835 0.82066482 -12.411782
-7.312211 0.84210342 -12.427908
-7.0779924 0.84863007 -12.419615
-5.6270895 0.84248954 -12.402653
-5.5658169 0.81170285 -12.438152
-7.0094714 0.85251522 -12.44288
-6.9246178 0.85344934 -12.43733
-6.7370787 0.85471261 -12.410615
-6.6614156 0.85685199 -12.42923
-6.3685699 0.85982573 -12.421712
-6.3375969 0.85972881 -12.419298
-6.0660024 0.85860693 -12.447834
-6.0304751 0.85814297 -12.444297
-6.7363005 0.7318114 -12.398561
-6.692874 0.72811866 -12.365482
-6.4388957 0.71119344 -12.353511
-6.2541676 0.71109945 -12.362785
-6.1965675 0.71410173 -12.392644
-6.0581746 0.71523666 -12.389428
-5.8908725 0.7212429 -12.364516
-5.6872292 0.73101616 -12.387046
-5.6134949 0.73172289 -12.364229
-5.4790277 0.74216717 -12.37993
-5.1933975 0.70905644 -12.383142
-7.6604471 0.78162968 -12.381445
-7.6327553 0.77618599 -12.373949
-7.5208831 0.78634304 -12.398622
-7.2673368 0.78504002 -12.36937
-7.026412 0.76487046 -12.388918
-6.9821882 0.77880448 -12.380741
-5.4655762 0.78628844 -12.394838
-5.4041319 0.76853848 -12.364194
-5.3338027 0.76958382 -12.364154
-7.2787294 0.84012908 -12.375392
-7.0202017 0.84440285 -12.376127
-6.9216881 0.84995985 -12.373619
-5.7363963 0.84776187 -12.374329
-5.6120491 0.84132028 -12.379128
-5.5806851 0.83566195 -12.354114
-5.5222487 0.80954909 -12.381409
-6.8837204 0.85122907 -12.38649
-6.7774687 0.85328168 -12.395466
-6.7435794 0.85243869 -12.371319
-6.5247555 0.85683495 -12.392851
-6.3260889 0.85836142 -12.390257
-6.2614756 0.85624635 -12.35469
-6.1614275 0.85707223 -12.3936
-5.9067101 0.85388315 -12.371388
-5.7980418 0.85132378 -12.394711
-5.3086672 0.692927 -12.313162
-5.2658134 0.6838764 -12.347807
-5.1955457 0.67520517 -12.335299
-6.8853717 0.74843365 -12.339836
-6.7972779 0.73793912 -12.311833
-6.7007785 0.72707117 -12.325922
-6.3259368 0.70795 -12.332253
-6.1834807 0.70788687 -12.314379
-6.1365767 0.71007746 -12.335559
-6.0169954 0.71190852 -12.341083
-5.9925656 0.71121371 -12.322289
-5.9367232 0.71491039 -12.328599
-5.8904848 0.71874273 -12.341015
-5.7966127 0.72015721 -12.306877
-5.6969252 0.72709179 -12.332472
-5.6224799 0.72909993 -12.34548
-5.4336724 0.74086332 -12.340848
-5.3588481 0.74703372 -12.327694
-5.3466148 0.71842903 -12.337579
-7.568934 0.78284746 -12.335832
-7.4416132 0.78233629 -12.310248
-7.3928776 0.7828142 -12.312959
-7.0826921 0.76657254 -12.325132
-5.4422159 0.78248709 -12.307739
-5.3953681 0.75198168 -12.339196
-5.348382 0.77452022 -12.328147
-7.3191509 0.83375752 -12.345722
-7.2413783 0.83933508 -12.342087
-7.1573377 0.84225965 -12.342665
-7.0206618 0.84521025 -12.312141
-6.9529867 0.84703201 -12.329072
-5.562345 0.83550406 -12.32459
-5.4669361 0.8042621 -12.315273
-6.7316723 0.85142428 -12.349877
-6.646162 0.85141945 -12.32722
-6.5338907 0.8533597 -12.332581
-6.2030029 0.85529983 -12.344675
-6.0782347 0.85285926 -12.313662
-6.8228111 0.74079669 -12.253409
-6.6558409 0.72207612 -12.260579
-6.4869356 0.71288377 -12.274285
-6.4203072 0.70741415 -12.276171
-6.1789446 0.70330006 -12.257253
-5.9664497 0.70613843 -12.261811
-5.9425101 0.70647871 -12.252917
-5.8925471 0.71046048 -12.264847
-5.161799 0.74030405 -12.261711
-7.5173559 0.7937125 -12.25146
-7.3623061 0.7809096 -12.273911
-7.081038 0.76527834 -12.282733
-6.9840121 0.75901341 -12.274176
-6.9209223 0.76669264 -12.266575
-5.3920426 0.76360941 -12.292183
-7.4947581 0.80087388 -12.26092
-7.3878527 0.82021332 -12.272482
-7.2470975 0.83248246 -12.256619
-6.9627976 0.84086418 -12.271496
-6.7542772 0.84680474 -12.272524
-6.6865091 0.84791946 -12.274742
-5.8760629 0.84950924 -12.277267
-5.7805061 0.84856641 -12.281145
-5.5655723 0.83707076 -12.267117
-5.4896555 0.8142702 -12.275352
-6.5132918 0.85094488 -12.283589
-6.429718 0.85033399 -12.250513
-6.2518234 0.85166085 -12.251525
-5.2022552 0.67938393 -12.235408
-6.1843767 0.70058393 -12.224433
-6.06078 0.70280069 -12.236399
-5.9864874 0.7015571 -12.211823
-5.8677664 0.70831484 -12.232353
-5.8284101 0.70982313 -12.226574
-5.720037 0.71667308 -12.235795
-5.6295576 0.71868539 -12.208941
-5.4240723 0.72766495 -12.213763
-5.3649192 0.73043609 -12.203905
-7.538744 0.78428161 -12.227365
-7.4645209 0.78366077 -12.204818
-7.361546 0.77770007 -12.214486
-7.0876369 0.76466149 -12.232135
-6.9690404 0.7560088 -12.200331
-6.9157791 0.76637495 -12.220452
-5.3591967 0.77839345 -12.211053
-5.3223348 0.75192189 -12.24603
-7.4131322 0.81225944 -12.213698
-7.3940353 0.8133803 -12.205719
-7.3384271 0.82113588 -12.230623
-7.2798433 0.82486135 -12.209219
-7.2005906 0.83278811 -12.219126
-7.1689825 0.83552682 -12.244695
-7.0435858 0.83967412 -12.242211
-6.5807223 0.84694451 -12.229236
-6.3273144 0.84939158 -12.211252
-5.970593 0.8483218 -12.231171
-5.718019 0.84468865 -12.243969
-6.1651788 0.85014439 -12.234076
-6.1226373 0.85043669 -12.249271
-6.133738 0.69707036 -12.174809
-6.0958638 0.69701737 -12.169445
-6.0304198 0.69909936 -12.18698
-5.2150512 0.68648356 -12.174263
-7.6060739 0.7460615 -12.195994
-6.8649783 0.74553216 -12.162814
-6.7899361 0.73669422 -12.17577
-6.7121053 0.7274794 -12.171697
-6.6320348 0.71804976 -12.185647
-6.5703678 0.71313131 -12.15103
-6.4284925 0.70452774 -12.152977
-5.865984 0.7036711 -12.188166
-5.4304028 0.72270513 -12.171942
-5.2625213 0.7380566 -12.169271
-5.0727935 0.73195654 -12.152582
-5.0311365 0.70440137 -12.173382
-7.5889606 0.76707762 -12.19263
-7.5413065 0.77194238 -12.160492
-7.2686753 0.77728301 -12.19511
-7.1884117 0.77614617 -12.170875
-6.9787917 0.75610363 -12.182158
-6.9264636 0.75247169 -12.168534
-5.3680296 0.79348898 -12.172007
-5.2918429 0.75492859 -12.18206
-7.4112496 0.8033765 -12.159092
-7.3544855 0.81572026 -12.189392
-7.0133123 0.83687502 -12.182818
-6.9219623 0.83869469 -12.159913
-6.8883038 0.80174387 -12.170402
-6.8002229 0.84191751 -12.196503
-6.7314053 0.8418898 -12.177837
-6.593545 0.84241772 -12.150971
-6.5291543 0.84393203 -12.161289
-6.2031126 0.84753788 -12.166761
-5.7903056 0.84467047 -12.183499
-5.665123 0.84056675 -12.16064
-5.6420245 0.8393926 -12.162915
-6.3838725 0.69966453 -12.112766
-6.0985041 0.69340724 -12.125255
-5.983335 0.69265366 -12.10164
-7.4970288 0.74983847 -12.102859
-6.9107246 0.74995548 -12.113767
-6.8775845 0.74970484 -12.122972
-6.7418952 0.73087335 -12.125155
-5.773613 0.70334232 -12.138535
-5.7468596 0.70555913 -12.145713
-5.6141472 0.71280128 -12.14632
-5.5969081 0.71043283 -12.115552
-5.4332523 0.71839958 -12.134059
-5.2692618 0.73033184 -12.145803
-5.1978641 0.70145828 -12.130364
-5.1277051 0.74887407 -12.122846
-5.094346 0.73750138 -12.149944
-7.4786444 0.78054965 -12.122499
-7.4263349 0.76489043 -12.134428
-7.3193054 0.77225518 -12.108531
-7.0208802 0.75712019 -12.110027
-6.9891763 0.75536191 -12.132818
-6.9440861 0.75275362 -12.139627
-6.8610125 0.75842535 -12.121299
-5.3351593 0.78838694 -12.143512
-5.2751069 0.77277625 -12.110987
-5.2427678 0.77496386 -12.113353
-5.1870408 0.76270109 -12.104979
-7.3850265 0.80531144 -12.133677
-7.1608953 0.82955158 -12.14796
-6.9610076 0.83633685 -12.146695
-6.859005 0.82088172 -12.109442
-6.667686 0.83852988 -12.100419
-6.5579901 0.84080887 -12.112571
-6.5290604 0.84310204 -12.146293
-6.4852123 0.84248483 -12.123589
-6.3729076 0.84495687 -12.138533
-5.5851402 0.8357234 -12.120476
-6.3799453 0.69792986 -12.064074
-6.1454873 0.69061023 -12.096144
-6.0740633 0.68781602 -12.053268
-5.8083177 0.69719934 -12.098765
-5.7656674 0.69953012 -12.098992
-6.9186854 0.74937397 -12.075484
-6.7259336 0.72882688 -12.067738
-6.5657167 0.71074235 -12.094648
-6.5186028 0.70670861 -12.058032
-6.4465103 0.70373791 -12.086864
-5.6893396 0.7007463 -12.071851
-5.0896053 0.74536538 -12.0756
-4.9849691 0.71290207 -12.078636
-7.5447512 0.75571233 -12.087147
-7.443037 0.75698829 -12.094946
-7.3892732 0.77653098 -12.067427
-7.2930684 0.76988 -12.06133
-7.2096844 0.7703222 -12.05903
-7.0524197 0.76071918 -12.079617
-5.2363558 0.77665097 -12.086369
-5.1610889 0.76011956 -12.096848
-7.2209325 0.81693959 -12.062636
-6.8559394 0.82118064 -12.091344
-6.5190001 0.83872163 -12.064632
-6.1802773 0.84387726 -12.087426
-6.0181174 0.84189671 -12.074425
-5.862103 0.83959037 -12.05273
-5.7606292 0.83945352 -12.069862
-5.5875683 0.83540815 -12.093132
-6.0750866 0.68447822 -12.012021
-5.103621 0.6915068 -12.000097
-5.0568147 0.6692183 -12.015233
-4.9490371 0.66892636 -12.030602
-7.4299197 0.74966729 -12.026277
-6.82868 0.74517173 -12.030326
-6.7556663 0.73220181 -12.016828
-5.5463877 0.70211858 -12.012578
-5.4681635 0.70714879 -12.032788
-5.1608944 0.73357975 -12.028486
-5.1297746 0.71966046 -12.02509
-5.009325 0.73384947 -12.010052
-4.953764 0.70940816 -12.038361
-7.4598355 0.77080631 -12.04073
-7.2611828 0.76850498 -12.031908
-7.1755066 0.76895446 -12.029453
-7.0577178 0.76135349 -12.001507
-7.0411286 0.75946528 -12.005961
-6.9570856 0.7505275 -12.031684
-6.8285656 0.78255045 -12.031624
-5.282959 0.78722978 -12.039563
-5.1040463 0.75422698 -12.010289
-7.2605367 0.8105545 -12.035665
-7.2101293 0.81346613 -12.014097
-7.1447887 0.82098371 -12.026263
-6.8969731 0.83040661 -12.020922
-6.8247833 0.82038599 -12.025154
-6.7441969 0.83260101 -12.013677
-6.402143 0.83958888 -12.049429
-6.3361301 0.83985811 -12.03686
-6.2465482 0.83995688 -12.014997
-6.0089531 0.83996457 -12.031975
-5.8966651 0.83810335 -12.011746
-5.6541133 0.8372494 -12.040623
-5.5201855 0.83103257 -12.041056
-5.4604721 0.82744235 -12.012664
-5.386065 0.82370615 -12.022845
-5.9854336 0.68293571 -11.982063
-5.8007402 0.68261427 -11.955132
-5.793447 0.68330079 -11.961708
-5.072185 0.67696059 -11.957133
-4.9927306 0.66068876 -11.982099
-4.8846407 0.69099385 -11.974757
-6.8250899 0.74021727 -11.956437
-6.5266643 0.70495737 -11.957226
-6.485642 0.70192134 -11.980326
-5.4919801 0.70056063 -11.970628
-5.4081869 0.70375872 -11.98005
-5.3041954 0.70687932 -11.951042
-5.2116747 0.71331954 -11.954987
-5.1197004 0.73181736 -11.967439
-7.1834784 0.76713055 -11.996737
-7.147912 0.76567525 -11.965369
-7.0057106 0.75545752 -11.95762
-5.213707 0.77698916 -11.982989
-5.1654086 0.76147145 -11.958034
-5.1135721 0.76202041 -11.963869
-5.0784621 0.75311929 -11.989361
-7.2503438 0.80371386 -11.951674
-7.0686612 0.82124406 -11.970423
-6.6752772 0.83261079 -11.995662
-6.5623426 0.83320063 -11.976492
-6.4834681 0.83551782 -11.997466
-5.8899717 0.83575398 -11.959239
-5.6602268 0.83474398 -11.981979
-5.3102794 0.81874871 -11.962038
-4.8752255 0.64794987 -11.908048
-6.2189016 0.68037474 -11.918839
-6.1266627 0.67689759 -11.921195
-5.9504681 0.67770809 -11.913252
-5.5939841 0.68845099 -11.909164
-5.5170178 0.69295275 -11.91233
-5.4828849 0.69434619 -11.908113
-5.0493441 0.69300127 -11.934252
-4.9549966 0.65801144 -11.915676
-4.9051323 0.65124387 -11.925332
-4.8973246 0.65428162 -11.947518
-6.8016415 0.73796129 -11.927965
-6.7289739 0.72880197 -11.928876
-6.6976528 0.72510511 -11.931344
-6.5262718 0.70480984 -11.920696
-5.4154005 0.70043749 -11.933885
-5.3864961 0.70070893 -11.93539
-5.2255349 0.70918024 -11.925207
-5.1522937 0.71273965 -11.914182
-5.1199026 0.745287 -11.907658
-4.8922844 0.71265626 -11.938427
-7.3415942 0.75149268 -11.940595
-7.2699018 0.75832987 -11.91051
-7.1918488 0.76234621 -11.909351
-7.0598016 0.76161939 -11.930936
-6.9807205 0.75262874 -11.925879
-6.7563581 0.7746411 -11.900291
-5.2103662 0.78765446 -11.942011
-5.1498098 0.7542088 -11.925252
-7.2506371 0.80021673 -11.917738
-6.9810963 0.82182014 -11.932796
-6.7161341 0.82747686 -11.91385
-6.4055796 0.83161378 -11.906494
-6.2044859 0.83466804 -11.908503
-5.9469943 0.83417428 -11.911644
-5.5518656 0.83033597 -11.9026
-5.4007936 0.8227827 -11.918072
-6.4230771 0.69354558 -11.851674
-6.2801685 0.68422306 -11.87629
-6.1933808 0.67746824 -11.891526
-6.0789957 0.67256606 -11.861968
-6.0098181 0.67271858 -11.857322
-5.6990466 0.67728782 -11.858065
-5.5114317 0.69087887 -11.890181
-5.4302282 0.69434959 -11.881598
-5.3575358 0.6977843 -11.891811
-5.2774477 0.69837755 -11.856896
-5.0206356 0.67367107 -11.877213
-4.9842625 0.67750281 -11.877045
-4.8944149 0.65094304 -11.892604
-4.8338795 0.66283309 -11.87944
-7.3713737 0.74093074 -11.896191
-7.3256035 0.74323761 -11.861818
-6.9550796 0.74974096 -11.85747
-6.7744808 0.73465365 -11.870273
-5.2698407 0.70147502 -11.880832
-5.1275783 0.7108711 -11.882237
-5.0987229 0.74869746 -11.880916
-4.9945149 0.7419849 -11.894214
-4.925456 0.73067749 -11.868505
-4.8870254 0.72220123 -11.861571
-7.2871718 0.78447193 -11.878662
-7.007761 0.75571543 -11.896937
-5.1813583 0.78182411 -11.891697
-5.120039 0.76682544 -11.865441
-7.0214791 0.81811368 -11.896919
-6.8438253 0.82429445 -11.89812
-6.6880622 0.82575786 -11.875434
-6.5393987 0.82688862 -11.856589
-6.3328924 0.83140558 -11.883553
-6.2364035 0.83165854 -11.862648
-5.7639732 0.83134389 -11.883331
-5.6808052 0.82940978 -11.855618
-5.6168504 0.82871085 -11.852373
-5.4231138 0.8231191 -11.866552
-5.3608799 0.81976086 -11.860659
-5.2764072 0.81558704 -11.876414
-6.2316103 0.67814159 -11.805264
-6.1704702 0.67348856 -11.819642
-5.7081714 0.67561907 -11.847111
-5.5324712 0.6829316 -11.826703
-5.4318938 0.68693465 -11.813316
-5.2953801 0.69464689 -11.833308
-4.7905869 0.6650309 -11.828344
-7.3956375 0.74968958 -11.83093
-5.0654745 0.74417764 -11.82163
-5.0485554 0.7338782 -11.830428
-4.7977157 0.70749372 -11.804292
-7.3358183 0.76035464 -11.808634
-7.2299938 0.78628129 -11.809488
-7.1521015 0.75776511 -11.819677
-6.9909372 0.7538228 -11.846977
-5.1238966 0.76925397 -11.828693
-5.0782003 0.76838833 -11.839695
-5.00247 0.75318784 -11.816019
-6.7202125 0.81153536 -11.818073
-6.3137846 0.82823616 -11.821343
-6.0409255 0.83179384 -11.838327
-5.8794055 0.83037418 -11.838052
-5.8043213 0.82947373 -11.832413
-5.5822091 0.82662946 -11.811591
-4.7852101 0.64037085 -11.785562
-6.3906016 0.68920559 -11.7851
-6.2890997 0.68266809 -11.79697
-6.2015877 0.67407072 -11.750607
-5.8832917 0.66783452 -11.783143
-5.480226 0.67881125 -11.761955
-5.1675477 0.69827038 -11.79026
-5.1307988 0.69977164 -11.782109
-7.3593931 0.74753517 -11.768236
-7.3041153 0.73761928 -11.796302
-6.8251624 0.7355482 -11.790117
-6.7804213 0.73234802 -11.775093
-6.6799221 0.72256178 -11.769995
-6.6136713 0.71475959 -11.781519
-5.0574355 0.7055608 -11.791512
-4.9881587 0.724617 -11.769607
-4.8392448 0.71861964 -11.795567
-7.3362885 0.75443095 -11.775473
-7.1668673 0.77601451 -11.781785
-7.1418185 0.75546145 -11.775802
-6.7156658 0.78501356 -11.791985
-5.0796056 0.76118064 -11.784288
-5.0246105 0.76279229 -11.779598
-6.7098665 0.80900919 -11.751272
-6.4602842 0.8228634 -11.763107
-5.8133612 0.82736284 -11.782228
-5.5478835 0.82531613 -11.788348
-5.4287243 0.82187682 -11.771626
-5.2623181 0.81311458 -11.769285
-5.2229552 0.81099552 -11.765866
-4.8160806 0.64588159 -11.739732
-4.7535062 0.63808179 -11.73095
-6.3934822 0.68857342 -11.727797
-6.3279719 0.68280011 -11.708771
-6.2056441 0.67425883 -11.745488
-6.1660089 0.67041415 -11.726187
-6.0087814 0.66203845 -11.722357
-5.9526219 0.66332507 -11.733268
-5.9047465 0.66360581 -11.732264
-5.8817654 0.66433609 -11.739302
-5.7715397 0.66545242 -11.739869
-5.7213511 0.6652981 -11.731725
-5.2086372 0.68799376 -11.72032
-5.1730886 0.69224155 -11.738138
-5.0897803 0.697923 -11.74061
-5.017261 0.69905102 -11.707659
-4.8620019 0.65691906 -11.711596
-4.8292227 0.65037584 -11.714713
-4.7145576 0.68565565 -11.725625
-4.6978459 0.68025118 -11.711607
-7.4071827 0.71728432 -11.734544
-7.3862195 0.71973318 -11.712654
-7.3438978 0.72455603 -11.744694
-7.2316494 0.74161327 -11.744399
-6.7531943 0.72907519 -11.718786
-6.7391262 0.72824293 -11.720253
-6.674643 0.74044353 -11.703033
-6.625073 0.71588784 -11.702048
-6.5814252 0.71081591 -11.734372
-5.0184145 0.74343598 -11.746471
-4.8208885 0.72376806 -11.700227
-7.1290245 0.75357622 -11.739346
-6.6811633 0.75618678 -11.739838
-5.0691276 0.77896959 -11.732693
-5.0374289 0.77267975 -11.70716
-7.0057969 0.80710888 -11.732034
-6.7878675 0.8161881 -11.742973
-6.5110097 0.81960201 -11.717671
-6.3494315 0.82232785 -11.724187
-6.1863399 0.82470918 -11.724091
-5.3854232 0.81879282 -11.721337
-5.3165736 0.81491596 -11.704829
-5.2222729 0.81044555 -11.734093
-5.1842155 0.80862987 -11.745189
-4.7484994 0.6387639 -11.690841
-6.3736491 0.68607444 -11.672249
-6.2566757 0.67639804 -11.673202
-6.2478995 0.67641062 -11.698782
-6.0008416 0.66024488 -11.698954
-5.6768761 0.66063815 -11.66873
-5.6180782 0.6609453 -11.664904
-5.1970372 0.68201941 -11.656547
-4.6733093 0.68099266 -11.672882
-7.3391876 0.71274477 -11.652374
-7.2101278 0.73305649 -11.657191
-7.130744 0.74702591 -11.67103
-6.95187 0.74944204 -11.695726
-6.8897414 0.7423805 -11.687473
-6.7878041 0.73079175 -11.68003
-6.5874443 0.71134764 -11.669318
-4.963984 0.70135093 -11.69698
-4.9016328 0.70462167 -11.689805
-4.8690643 0.73604631 -11.693381
-4.8146348 0.72546732 -11.68161
-7.1080465 0.75155663 -11.699379
-7.080368 0.79524684 -11.682969
-6.9687929 0.75070208 -11.666085
-6.6560249 0.790694 -11.665571
-6.6824856 0.80292881 -11.671192
-6.6248684 0.81530833 -11.670281
-6.3317003 0.82018423 -11.680844
-6.0988965 0.82308698 -11.671751
-6.0271597 0.82429147 -11.675822
-5.8758464 0.82236582 -11.655222
-5.6876097 0.82158172 -11.67485
-5.6422367 0.8216238 -11.684878
-5.5379658 0.82041931 -11.678101
-5.487154 0.81956971 -11.668777
-5.4019303 0.81889802 -11.674364
-5.3960662 0.81853962 -11.671217
-5.2858539 0.81305695 -11.689478
-5.2063694 0.80867565 -11.676251
-5.1748099 0.80703193 -11.676927
-5.1140795 0.80382133 -11.675283
-4.7672729 0.6455521 -11.629215
-6.4554791 0.69568086 -11.646985
-6.4302921 0.69264948 -11.627831
-6.3960223 0.68859482 -11.627008
-6.2600827 0.67553246 -11.633532
-6.027245 0.65615165 -11.630902
-5.8970699 0.65705562 -11.64882
-5.169466 0.6810894 -11.629496
-5.110404 0.68340814 -11.619475
-5.0271492 0.68679291 -11.600863
-4.8221288 0.66893661 -11.618001
-7.3122621 0.71080256 -11.607842
-7.2926741 0.71868223 -11.643921
-7.2064075 0.72821581 -11.617347
-7.1394114 0.74132985 -11.638786
-7.0399408 0.74839741 -11.632423
-6.9566755 0.74905246 -11.634072
-6.8516293 0.73806399 -11.644882
-6.796113 0.73176205 -11.617794
-6.639226 0.73258972 -11.62248
-4.8834667 0.7363565 -11.62315
-4.8436775 0.73662144 -11.637815
-7.162714 0.76838481 -11.613785
-7.0356789 0.79336256 -11.615986
-6.6464849 0.78533274 -11.645091
-6.8895307 0.80471593 -11.619528
-6.6296926 0.80512816 -11.634235
-6.4934273 0.8161003 -11.649873
-6.2822752 0.81813389 -11.630816
-6.0067916 0.82122982 -11.61633
-5.7316008 0.81941551 -11.616418
-5.2691913 0.81146526 -11.645112
-5.2392001 0.80995131 -11.64872
-5.1377897 0.804591 -11.64603
-6.4733305 0.69755995 -11.563221
-6.4266186 0.69208664 -11.581396
-6.1821699 0.6672945 -11.572088
-5.9963298 0.65190881 -11.57286
-5.9369974 0.65116525 -11.578231
-5.8307414 0.65021074 -11.556082
-5.7328777 0.65147591 -11.562357
-5.6676083 0.6537742 -11.582934
-5.6275716 0.65293735 -11.567636
-5.4291234 0.66019833 -11.562685
-5.3990974 0.66387379 -11.581811
-5.3309464 0.66416812 -11.550199
-5.1113591 0.67649662 -11.556499
-5.0889196 0.67852944 -11.561786
-4.7865591 0.65335262 -11.57951
-4.5957971 0.67131108 -11.575694
-7.2701063 0.73127043 -11.551248
-7.2466135 0.72829199 -11.570969
-6.6798553 0.71978045 -11.550065
-4.8870831 0.72947174 -11.59519
-4.7343187 0.7184999 -11.571466
-7.171484 0.75912046 -11.573095
-7.1353531 0.76895106 -11.578974
-7.0511332 0.78699076 -11.564847
-6.9690952 0.79790473 -11.594959
-5.046051 0.79893875 -11.593975
-4.9589963 0.76275384 -11.579263
-4.9189434 0.76407862 -11.557621
-6.8064723 0.80478185 -11.576405
-6.7634163 0.80633098 -11.577487
-6.5712638 0.80986893 -11.558025
-6.348475 0.81282222 -11.552485
-6.282474 0.81502831 -11.574856
-6.1855631 0.81638813 -11.573803
-6.0854101 0.81853718 -11.586127
-5.7578158 0.81875026 -11.595936
-5.7427077 0.81712908 -11.561798
-5.6232753 0.8169347 -11.581199
-5.5309787 0.81528324 -11.561785
-5.4679608 0.81487459 -11.565007
-5.3317394 0.81385899 -11.59039
-5.1432319 0.80346256 -11.558678
-5.0974708 0.80157751 -11.590444
-5.7288027 0.64921016 -11.53376
-4.599843 0.62476718 -11.533219
-6.2712884 0.67353731 -11.515865
-6.1461325 0.66335464 -11.539191
-5.6768236 0.65023917 -11.540488
-5.2940311 0.66267169 -11.517639
-5.0740027 0.67587394 -11.528459
-5.0140991 0.67854416 -11.517225
-4.894268 0.68764669 -11.529332
-4.7792969 0.67618161 -11.530121
-4.7434268 0.65159768 -11.500553
-7.3078876 0.70412272 -11.512841
-7.2179866 0.73647052 -11.508464
-6.5738134 0.71813464 -11.533442
-4.8925409 0.74738133 -11.532345
-4.8137302 0.74248588 -11.528711
-5.0259418 0.79655665 -11.511932
-4.9333062 0.76727915 -11.537667
-4.8711109 0.75533986 -11.535425
-6.5696955 0.80609572 -11.51856
-6.4191041 0.80922949 -11.506329
-6.1248322 0.81571072 -11.545556
-5.9314342 0.81737399 -11.535665
-5.7587891 0.81486565 -11.50671
-5.5886002 0.81461191 -11.53489
-5.4951987 0.81335354 -11.524704
-5.4210458 0.8133049 -11.538402
-5.0940957 0.80001092 -11.50458
-5.9379144 0.64455271 -11.486029
-5.6599827 0.64314198 -11.450594
-5.6211662 0.64735663 -11.498021
-5.5691538 0.64701319 -11.487317
-5.5315104 0.64719945 -11.484933
-4.6101608 0.62895691 -11.473345
-4.5777688 0.62416583 -11.465256
-4.5491643 0.62053239 -11.46329
-7.2974634 0.69716531 -11.472705
-6.1897864 0.66463542 -11.458378
-6.1424417 0.6612227 -11.476094
-5.2636032 0.65921831 -11.470107
-5.2182102 0.66232926 -11.476224
-5.0176268 0.6736871 -11.474674
-4.8517184 0.68546814 -11.483883
-4.733274 0.69549036 -11.460271
-7.2342505 0.7016902 -11.453139
-7.1696725 0.74023819 -11.462792
-6.9404631 0.74096686 -11.482572
-6.832067 0.73590106 -11.494067
-6.7214851 0.72333294 -11.477816
-6.5567188 0.74973887 -11.475946
-6.5140414 0.70211017 -11.467892
-4.850883 0.74054307 -11.49511
-4.8469114 0.73879588 -11.479486
-4.7519975 0.73422545 -11.47472
-4.6782875 0.71657354 -11.485329
-4.6320186 0.70786202 -11.462429
-7.0766726 0.76901299 -11.497737
-7.0406804 0.77017796 -11.454343
-6.9763126 0.78603917 -11.47534
-6.8737111 0.79525059 -11.468193
-6.8028922 0.79887056 -11.483054
-5.0849271 0.79928654 -11.489523
-4.8659039 0.75531852 -11.451896
-6.378552 0.80911982 -11.493647
-6.3133564 0.80939656 -11.48143
-6.0863676 0.81183749 -11.465542
-6.0088029 0.8122825 -11.455102
-5.8481536 0.81464553 -11.487968
-5.7327094 0.81391203 -11.490065
-5.682539 0.81224632 -11.461909
-5.5792551 0.81260037 -11.490653
-5.4413519 0.81109452 -11.483688
-5.3982863 0.80941468 -11.453789
-5.2486358 0.8079102 -11.492036
-5.9613371 0.64430624 -11.410404
-5.6751122 0.64074659 -11.421783
-5.5994377 0.64004076 -11.405104
-4.609396 0.63128328 -11.435267
-4.5878844 0.62910122 -11.411722
-7.260325 0.69409031 -11.426404
-6.3606563 0.68391275 -11.446413
-6.1480894 0.66082352 -11.446121
-5.0654383 0.66422027 -11.417013
-4.8695836 0.67814994 -11.42727
-4.807869 0.67967212 -11.404399
-4.7187457 0.68743718 -11.422552
-7.1137877 0.71670955 -11.428608
-7.0967565 0.74784535 -11.404834
-6.7039995 0.72136188 -11.435499
-6.6404018 0.71413267 -11.428779
-6.5376344 0.73691946 -11.411952
-4.7639618 0.71725684 -11.432643
-4.7403879 0.70618528 -11.419793
-4.6530194 0.71590394 -11.430796
-4.584343 0.70240062 -11.410316
-6.9696493 0.78078473 -11.416126
-6.9098449 0.78663516 -11.41214
-6.8854003 0.78854191 -11.406983
-6.6912804 0.79921269 -11.429029
-6.5431085 0.77131397 -11.436883
-4.8780794 0.76941055 -11.421714
-4.8408456 0.75530958 -11.418059
-6.6580796 0.80035347 -11.429031
-6.342762 0.80482131 -11.406671
-6.2512984 0.80710149 -11.423656
-5.9374733 0.81012523 -11.404364
-5.808495 0.81093478 -11.413766
-5.684402 0.80969411 -11.403046
-5.6197071 0.81047815 -11.433935
-5.4084773 0.80803567 -11.42015
-5.3756313 0.80847007 -11.436665
-5.1303105 0.80039203 -11.410813
-6.0438414 0.64945602 -11.351984
-5.6873178 0.63863343 -11.396258
-4.4402676 0.64992774 -11.37186
-6.3600321 0.68362892 -11.37054
-6.266715 0.67254001 -11.350967
-6.2337646 0.66874534 -11.387701
-6.1394677 0.65811175 -11.377115
-6.0603099 0.6513685 -11.370888
-5.1759071 0.65421563 -11.379263
-5.0010939 0.6632688 -11.376855
-4.8893957 0.67106956 -11.374006
-4.703238 0.68288279 -11.371415
-4.5528479 0.69910938 -11.374008
-4.4928856 0.68854898 -11.350992
-7.1360121 0.73514611 -11.386924
-6.943511 0.73225814 -11.352069
-6.8682446 0.7366752 -11.394168
-6.8007097 0.73237419 -11.39875
-6.6883068 0.71959811 -11.384794
-6.620995 0.71194047 -11.392873
-6.5211906 0.72501421 -11.399035
-4.7489505 0.72886461 -11.36612
-4.5595765 0.70046687 -11.38605
-7.0252652 0.75709468 -11.358228
-6.7861733 0.79096591 -11.351882
-6.5767808 0.77897346 -11.382882
-4.9502048 0.79032087 -11.37198
-4.9252481 0.78888822 -11.364304
-4.802424 0.75128376 -11.375687
-6.4837661 0.80070364 -11.369619
-5.959693 0.80856353 -11.379836
-5.9122033 0.8090151 -11.380144
-5.5523396 0.80765891 -11.38278
-5.5271816 0.80710638 -11.375142
-5.467135 0.80560064 -11.352628
-5.2985859 0.80440259 -11.358833
-5.1302047 0.80019051 -11.398705
-5.8261795 0.63083667 -11.310997
-5.7937779 0.63114434 -11.311804
-5.5419431 0.63613963 -11.349846
-5.3415222 0.63845807 -11.315862
-4.5851583 0.6354419 -11.328558
-4.4216967 0.6275596 -11.321201
-7.2268491 0.68240154 -11.301399
-6.3760662 0.6854614 -11.347547
-6.2067628 0.6653918 -11.329685
-5.0503106 0.65471864 -11.320637
-4.9526205 0.6598469 -11.319613
-4.8283515 0.66758049 -11.30546
-4.7646623 0.67257947 -11.313376
-4.6747222 0.67766929 -11.306446
-4.488831 0.69084811 -11.323921
-4.4415183 0.67255789 -11.339352
-7.2192411 0.70127553 -11.341844
-7.1403623 0.72178173 -11.316687
-7.0547867 0.74341828 -11.321206
-7.0453124 0.71559787 -11.343563
-6.7833114 0.73042876 -11.317996
-6.7339668 0.72481894 -11.314808
-6.6721025 0.71777427 -11.338686
-6.6377668 0.71387911 -11.31583
-6.5949197 0.70901203 -11.303004
-6.5027995 0.73749107 -11.338004
-6.4773026 0.70094419 -11.304999
-4.6454582 0.72950947 -11.301413
-4.5783143 0.71194369 -11.31476
-4.5343862 0.70302367 -11.301891
-6.8301263 0.78485233 -11.309568
-6.6753292 0.79402173 -11.340246
-6.588017 0.78334421 -11.334617
-5.0756969 0.79646319 -11.344976
-4.9353147 0.78884876 -11.329257
-4.8243642 0.77317995 -11.32063
-6.0766921 0.80326331 -11.308339
-5.9650235 0.80488634 -11.314318
-5.7858291 0.80608344 -11.313053
-5.6334496 0.8050018 -11.309281
-5.3765445 0.80444288 -11.344185
-5.2626276 0.80251896 -11.322847
-5.187099 0.80163556 -11.317687
-5.9495258 0.63890892 -11.25774
-5.5042014 0.63201618 -11.294305
-5.4972687 0.63199782 -11.293217
-5.2616153 0.6394195 -11.284542
-5.0895071 0.64755142 -11.273584
-4.512826 0.62499243 -11.287104
-4.4647675 0.61594903 -11.285013
-7.101676 0.69604862 -11.262773
-6.3239579 0.67909378 -11.2732
-6.1007042 0.65307719 -11.252092
-6.087872 0.65170747 -11.270873
-4.7304378 0.67107493 -11.279099
-4.6233959 0.68799305 -11.291316
-4.5946798 0.67735434 -11.255735
-4.4709849 0.69190347 -11.2742
-4.406239 0.66845673 -11.294479
-7.0775452 0.71455848 -11.271681
-7.0464144 0.70441961 -11.262431
-6.7208681 0.72334683 -11.272186
-6.4683352 0.74179351 -11.288292
-4.7189703 0.74061012 -11.261477
-4.6686678 0.71553326 -11.26784
-6.8798132 0.77551121 -11.261471
-6.668222 0.78887314 -11.25682
-6.5021586 0.75999087 -11.268945
-6.4624047 0.76760828 -11.277511
-6.3746119 0.79745549 -11.282224
-6.3340788 0.79803193 -11.281922
-4.9847875 0.79087454 -11.294159
-4.8066816 0.78105772 -11.264562
-6.0758123 0.80032992 -11.2552
-5.9929433 0.80229867 -11.272206
-5.71492 0.80426419 -11.2832
-5.5300503 0.80174851 -11.252931
-5.4477262 0.80248672 -11.285134
-5.2913017 0.80060542 -11.273264
-5.2459769 0.80089641 -11.288987
-6.0734568 0.64990199 -11.226162
-5.830102 0.62755996 -11.207721
-5.6595259 0.62420464 -11.211414
-5.5953608 0.62663573 -11.236017
-5.4614377 0.6272763 -11.230536
-5.3835664 0.62742293 -11.222661
-5.0138125 0.64498711 -11.212516
-4.3501143 0.64979756 -11.248768
-7.1684995 0.69135129 -11.240772
-7.0769477 0.69554466 -11.231304
-4.7754693 0.66433644 -11.244044
-4.6201839 0.67016035 -11.204827
-4.5735617 0.68733799 -11.215897
-6.9604187 0.7144466 -11.239798
-6.8971286 0.72363204 -11.236447
-4.6072855 0.70133412 -11.227148
-6.9378018 0.75482386 -11.223654
-6.7836409 0.78280962 -11.239007
-6.5391951 0.77228886 -11.201067
-6.3771062 0.79300374 -11.202588
-6.3477921 0.79478627 -11.227001
-6.0726595 0.79868734 -11.224742
-5.8696828 0.79947734 -11.200897
-5.0258117 0.79192489 -11.226162
-4.9071026 0.78554028 -11.216221
-4.770617 0.77827436 -11.209411
-5.9303207 0.80012053 -11.222531
-5.539784 0.80151576 -11.246727
-6.0667214 0.64887798 -11.160777
-5.853054 0.62846428 -11.173213
-5.7949262 0.62392724 -11.182971
-5.6537042 0.61941338 -11.150358
-5.6138973 0.62082899 -11.164453
-5.5650311 0.62301058 -11.187358
-5.4532857 0.6227544 -11.173504
-5.2501254 0.62870556 -11.178875
-5.2377701 0.62705892 -11.157297
-4.4256306 0.61848891 -11.1633
-4.3214302 0.62541997 -11.193596
-7.0328841 0.69551891 -11.18166
-6.3709917 0.68439728 -11.179905
-6.2533026 0.67051756 -11.193287
-4.8412638 0.65058768 -11.17819
-4.7096186 0.65912139 -11.156757
-4.6140075 0.66646349 -11.167147
-4.5425816 0.67864877 -11.1836
-4.3875027 0.68519294 -11.158108
-7.1007781 0.70522076 -11.167115
-7.0416393 0.72134656 -11.176935
-6.9054012 0.71307194 -11.167918
-6.8303194 0.72428626 -11.166285
-6.7603359 0.72524887 -11.169395
-6.5155745 0.70003396 -11.193888
-4.60184 0.71706522 -11.161935
-4.5865464 0.7300933 -11.178773
-4.5186858 0.71612132 -11.160506
-4.4606223 0.70144427 -11.167741
-6.6991992 0.78201872 -11.167244
-6.6275787 0.78584993 -11.188449
-6.2524929 0.79460615 -11.198599
-6.2175803 0.7950995 -11.19828
-6.1415114 0.79531473 -11.182085
-5.9676456 0.7964533 -11.162478
-5.8922844 0.7991727 -11.19913
-5.8366904 0.79873955 -11.182125
-5.6358237 0.79871392 -11.174721
-5.589529 0.79823679 -11.170406
-5.408855 0.79818487 -11.194308
-5.3961167 0.79655832 -11.159575
-5.2726073 0.79640412 -11.180711
-5.1894264 0.79482794 -11.161201
-4.9273267 0.78566945 -11.158688
-4.7168517 0.75718075 -11.198812
-4.6879511 0.75023299 -11.175835
-6.0775456 0.64996791 -11.128775
-5.9024224 0.63132006 -11.130454
-5.833138 0.62538254 -11.123782
-5.7454042 0.61884701 -11.149302
-5.6726432 0.61721456 -11.124391
-5.5470414 0.61908758 -11.136108
-5.4656305 0.61835647 -11.119141
-5.3111191 0.61977953 -11.119396
-5.2761321 0.62266475 -11.135673
-4.9281259 0.6415754 -11.144135
-7.0745368 0.68089151 -11.120625
-7.0166245 0.69109297 -11.130796
-6.4198785 0.69374049 -11.123679
-4.6849208 0.65853345 -11.136598
-4.4623213 0.66726804 -11.107745
-4.3690324 0.68481243 -11.129028
-4.3035841 0.67278105 -11.102509
-4.2932405 0.65857273 -11.143951
-6.9299688 0.71939075 -11.112624
-6.3981314 0.72242463 -11.138342
-4.612391 0.74439991 -11.110263
-4.5676947 0.71040553 -11.128524
-4.5285587 0.70947576 -11.127041
-6.384716 0.7737053 -11.113462
-6.1509943 0.79266506 -11.136797
-6.113883 0.79260695 -11.125954
-6.0922461 0.79410672 -11.147294
-5.9916015 0.79394823 -11.121202
-5.8655047 0.79619783 -11.140989
-5.4950848 0.7949971 -11.113208
-5.4421554 0.79639351 -11.149735
-5.3513179 0.79476517 -11.127427
-5.3277588 0.79554033 -11.149899
-5.1929169 0.79369545 -11.13455
-4.9822435 0.78811765 -11.132054
-4.7025003 0.7649439 -11.148082
-5.9574227 0.63622779 -11.07812
-5.8354988 0.62460721 -11.090226
-5.6761789 0.61378121 -11.081371
-5.413003 0.61657554 -11.091651
-5.3821797 0.61480814 -11.066404
-5.3353338 0.61437535 -11.055768
-5.1308513 0.62135404 -11.050215
-5.0843687 0.62888783 -11.097013
-4.9572434 0.63506043 -11.094417
-4.9227934 0.63441515 -11.07383
-4.8272281 0.64010584 -11.087833
-4.4255161 0.62863791 -11.085157
-4.3732495 0.61506039 -11.083129
-4.307354 0.60446608 -11.058386
-7.0017352 0.68375772 -11.060036
-6.9226165 0.69463223 -11.051366
-6.440135 0.69151288 -11.052973
-6.2561851 0.67059469 -11.098022
-4.4794707 0.6854614 -11.062396
-4.4250817 0.66285521 -11.061394
-7.0183396 0.70856726 -11.071593
-6.7295179 0.72103006 -11.087539
-6.6453853 0.71485108 -11.057324
-6.582118 0.70764428 -11.087616
-6.3757887 0.72842848 -11.050735
-4.5792861 0.7263605 -11.09103
-4.5426083 0.70708233 -11.089593
-4.4914575 0.718207 -11.088573
-6.7333317 0.77015316 -11.050684
-6.6697006 0.77768373 -11.084504
-6.4599094 0.75226146 -11.073885
-6.3706355 0.75669849 -11.082486
-5.9041405 0.7917636 -11.067306
-5.7870712 0.79377371 -11.084258
-5.7102981 0.79531032 -11.09932
-5.2329888 0.79215801 -11.091308
-4.9712224 0.78678876 -11.085645
-4.9156289 0.78388411 -11.086267
-4.7507515 0.77507764 -11.076243
-6.0067525 0.64149052 -11.005244
-5.9646478 0.63675451 -11.007236
-5.7885103 0.61877012 -11.023144
-5.5419612 0.61094207 -11.032766
-5.4256744 0.61157906 -11.02976
-4.771945 0.63712883 -11.035544
-4.2932162 0.6060788 -11.005994
-4.2060122 0.61968154 -11.042596
-4.1718416 0.62390268 -11.005439
-7.0377269 0.67217201 -11.01506
-6.3854895 0.68684787 -11.028537
-6.3321934 0.68175834 -11.033313
-4.5908704 0.65364748 -11.035491
-4.4362459 0.68222272 -11.008979
-4.2981238 0.68253529 -11.001806
-7.0008035 0.70085323 -11.003178
-6.7162623 0.71735013 -11.017849
-6.5455365 0.70350868 -11.02838
-6.3337474 0.72207808 -11.002016
-4.5559707 0.73415613 -11.015024
-4.5327778 0.73347092 -11.00929
-4.4412189 0.7113955 -11.045382
-6.4829965 0.76044518 -11.009184
-6.2895708 0.78581041 -11.049741
-6.2307048 0.78495693 -11.018809
-5.772656 0.7902956 -11.019073
-5.7416782 0.79018313 -11.011926
-5.5782986 0.79116988 -11.020935
-5.4677339 0.79064441 -11.023738
-5.3905916 0.78978729 -11.01522
-5.0438867 0.78715795 -11.014488
-4.9219251 0.78298479 -11.010304
-4.7613072 0.77454704 -11.009266
-4.6859026 0.77055866 -11.0071
-2.314966 -0.77786708 -10.951869
-2.5102243 -0.71619809 -10.952332
-2.4250095 -0.72087997 -10.95887
-2.2839246 -0.7476871 -10.96392
-2.098449 -0.7321443 -10.982995
-2.0119946 -0.71953028 -10.978953
-2.603723 -0.6605593 -10.960469
-2.440444 -0.65934467 -10.976086
-2.381012 -0.67541552 -10.976764
-2.132091 -0.65067112 -10.986325
